ncols        171
nrows        28
xllcorner    -88105
yllcorner    -105785
cellsize     10.000000000000
NODATA_value nan
75 75 75 75 75 75 74.910003662109375 73.89800262451171875 72.8860015869140625 71.87400054931640625 70.86199951171875 69.891998291015625 69.1790008544921875 68.46700286865234375 67.753997802734375 67.0410003662109375 66.32900238037109375 65.6269989013671875 64.9459991455078125 64.43599700927734375 63.88800048828125 63.26399993896484375 62.6399993896484375 62.01599884033203125 61.573001861572265625 61.38800048828125 61.173000335693359375 60.923000335693359375 60.633998870849609375 60.323001861572265625 60 58.4329986572265625 56.856998443603515625 55.338001251220703125 53.51300048828125 51.412998199462890625 49.311000823974609375 47.2050018310546875 44.7350006103515625 42.5839996337890625 40.4290008544921875 37.69699859619140625 35.939998626708984375 32.938999176025390625 25.691999435424804688 22.93000030517578125 20.629999160766601562 18.982999801635742188 18.302999496459960938 18.311000823974609375 15.284999847412109375 14.66699981689453125 14.298999786376953125 13.930999755859375 13.564000129699707031 13.196999549865722656 12.826000213623046875 12.887999534606933594 12.425000190734863281 11.616000175476074219 11.380000114440917969 11.227999687194824219 11.116999626159667969 11.020999908447265625 10.925000190734863281 10.829000473022460938 10.732999801635742188 10.637000083923339844 10.54199981689453125 10.442000389099121094 10.336999893188476562 10.331000328063964844 10.31999969482421875 10.317000389099121094 10.352000236511230469 10.725999832153320312 11.517999649047851562 12.310999870300292969 13.102999687194824219 13.895999908447265625 14.640999794006347656 14.94499969482421875 16.447000503540039062 18.912000656127929688 20.930999755859375 22.447999954223632812 23.961000442504882812 27.823999404907226562 35.298999786376953125 37.18399810791015625 39.24900054931640625 44.115001678466796875 46.54000091552734375 48.282001495361328125 50.311000823974609375 55.1660003662109375 57.70999908447265625 60.394001007080078125 64.50499725341796875 68.14499664306640625 75.3939971923828125 82.68599700927734375 87.65000152587890625 90.97299957275390625 93.27100372314453125 94.40000152587890625 95 95.09100341796875 95.09100341796875 95.08699798583984375 95.0500030517578125 94.9759979248046875 94.33699798583984375 93.141998291015625 91.52100372314453125 90 89.59400177001953125 89.0189971923828125 88.44300079345703125 87.96399688720703125 87.43399810791015625 86.77899932861328125 86.1230010986328125 85.46700286865234375 83.6320037841796875 79.19699859619140625 74.83599853515625 72.720001220703125 70.5709991455078125 66.125 63.823001861572265625 62.34999847412109375 60.87200164794921875 59.337001800537109375 58.226001739501953125 57.574001312255859375 56.923000335693359375 57.064998626708984375 58.092998504638671875 59.036998748779296875 60.154998779296875 61.6230010986328125 63.078998565673828125 63.720001220703125 62.6139984130859375 61.048000335693359375 59.44699859619140625 57.779998779296875 56.131999969482421875 54.409000396728515625 52.591999053955078125 51.90599822998046875 51.81600189208984375 51.145000457763671875 50.201999664306640625 50 50 50 51.741001129150390625 54.104000091552734375 55.69100189208984375 56.40000152587890625 56.897998809814453125 56.77899932861328125 56.58599853515625 55.840000152587890625 54.99900054931640625 54.006999969482421875 52.880001068115234375 51.407001495361328125 49.81800079345703125
75 75 75 75 75 75 74.7129974365234375 73.6999969482421875 72.6869964599609375 71.67299652099609375 70.660003662109375 69.76599884033203125 69.095001220703125 68.4120025634765625 67.7180023193359375 67.01799774169921875 66.31800079345703125 65.6179962158203125 64.94300079345703125 64.4420013427734375 63.9420013427734375 63.426998138427734375 62.819000244140625 62.19499969482421875 61.837001800537109375 61.62200164794921875 61.3470001220703125 61.035999298095703125 60.633998870849609375 60.231998443603515625 59.98600006103515625 58.409999847412109375 57.089000701904296875 55.83499908447265625 54.338001251220703125 52.35900115966796875 50.358001708984375 47.922000885009765625 45.145999908447265625 43.016998291015625 40.923999786376953125 38.99900054931640625 37.198001861572265625 35.396999359130859375 29.118000030517578125 25.201000213623046875 22.891000747680664062 20.752000808715820312 20.020999908447265625 20.135999679565429688 19.378000259399414062 14.979000091552734375 14.609000205993652344 14.229000091552734375 14.255000114440917969 14.642999649047851562 15.001000404357910156 14.029000282287597656 12.232999801635742188 11.809000015258789062 11.385000228881835938 11.161000251770019531 11 10.842000007629394531 10.692999839782714844 10.560000419616699219 10.451999664306640625 10.355999946594238281 10.260000228881835938 10.161000251770019531 10.131999969482421875 10.123999595642089844 10.112999916076660156 10.121999740600585938 10.164999961853027344 10.612999916076660156 11.404999732971191406 12.197999954223632812 12.989999771118164062 13.781999588012695312 14.574999809265136719 15.692999839782714844 17.4459991455078125 19.160999298095703125 21.0149993896484375 22.535999298095703125 24.055999755859375 28.534000396728515625 35.70999908447265625 37.59999847412109375 39.422000885009765625 45.130001068115234375 46.824001312255859375 48.467998504638671875 50.358001708984375 55.2910003662109375 57.787998199462890625 60.466999053955078125 64.5319976806640625 68.26799774169921875 75.1179962158203125 82.92600250244140625 88.147003173828125 91.029998779296875 92.77300262451171875 93.746002197265625 94.7779998779296875 94.83699798583984375 94.83699798583984375 94.83499908447265625 94.7480010986328125 94.30999755859375 94.0800018310546875 92.944000244140625 91.72699737548828125 90.51000213623046875 89.71900177001953125 89.2429962158203125 88.74500274658203125 88.08899688720703125 87.4329986572265625 86.7779998779296875 86.12200164794921875 85.496002197265625 83.8679962158203125 79.78399658203125 75.43900299072265625 72.9199981689453125 70.6060028076171875 66.54000091552734375 63.995998382568359375 62.480998992919921875 60.965000152587890625 59.2949981689453125 57.672000885009765625 56.2649993896484375 55.444000244140625 56.047000885009765625 56.840999603271484375 57.506999969482421875 58.4010009765625 59.796001434326171875 60.85900115966796875 61.0579986572265625 60.148998260498046875 58.895000457763671875 57.408000946044921875 55.83100128173828125 53.870998382568359375 51.423999786376953125 50.048999786376953125 50.255001068115234375 50.16500091552734375 50.074001312255859375 49.917999267578125 49.73400115966796875 49.549999237060546875 49.365001678466796875 50.233001708984375 52.6510009765625 53.72100067138671875 54.824001312255859375 55.36199951171875 55.4980010986328125 55.4290008544921875 54.910999298095703125 54.106998443603515625 53.15200042724609375 51.9980010986328125 50.819000244140625 49.325000762939453125
75 75 75 75 75 75 74.4629974365234375 73.46600341796875 72.46600341796875 71.4530029296875 70.43900299072265625 69.62000274658203125 68.94899749755859375 68.2779998779296875 67.608001708984375 66.93199920654296875 66.25099945068359375 65.56099700927734375 64.90799713134765625 64.41699981689453125 63.925998687744140625 63.4329986572265625 62.937000274658203125 62.37400054931640625 62.061000823974609375 61.68399810791015625 61.28099822998046875 60.879001617431640625 60.476001739501953125 60.074001312255859375 59.881000518798828125 58.768001556396484375 57.58599853515625 56.332000732421875 55.077999114990234375 53.147998809814453125 51.24700164794921875 49 45.80300140380859375 43.393001556396484375 41.37200164794921875 39.422000885009765625 37.69699859619140625 36.292999267578125 34.506000518798828125 28.066999435424804688 25.886999130249023438 23.996999740600585938 22.316999435424804688 22.190999984741210938 21.297000885009765625 19.906999588012695312 16.010999679565429688 16.398000717163085938 16.785999298095703125 16.474000930786132812 15.487999916076660156 12.850999832153320312 12.425999641418457031 12.001999855041503906 11.578000068664550781 11.154000282287597656 10.942000389099121094 10.779999732971191406 10.619999885559082031 10.461999893188476562 10.30500030517578125 10.157999992370605469 10.022000312805175781 10 10 10 10 10 10 10.444000244140625 11.336999893188476562 12.171999931335449219 13.13899993896484375 14.225999832153320312 15.3470001220703125 16.549999237060546875 18.024999618530273438 19.378999710083007812 21.0279998779296875 22.576000213623046875 24.12599945068359375 29.649999618530273438 35.88700103759765625 37.65599822998046875 39.46099853515625 45.185001373291015625 46.825000762939453125 48.467998504638671875 50.358001708984375 55.23799896240234375 57.76599884033203125 60.477001190185546875 64.5469970703125 69.5279998779296875 74.59100341796875 83.1660003662109375 89.25800323486328125 91.177001953125 92.20999908447265625 93.2429962158203125 94.27500152587890625 94.65399932861328125 94.654998779296875 94.65000152587890625 94.27100372314453125 93.73000335693359375 93.457000732421875 92.845001220703125 91.62799835205078125 90.41100311279296875 90 89.47499847412109375 88.89099884033203125 88.28600311279296875 87.58899688720703125 86.89099884033203125 86.194000244140625 85.496002197265625 83.87000274658203125 79.93599700927734375 76.22100067138671875 73.31600189208984375 70.4929962158203125 66.5019989013671875 64.16500091552734375 62.506000518798828125 60.991001129150390625 59.327999114990234375 57.38800048828125 55.449001312255859375 54.448001861572265625 53.70800018310546875 54.95800018310546875 55.644001007080078125 56.58300018310546875 57.728000640869140625 58.617000579833984375 58.715999603271484375 57.925998687744140625 56.717998504638671875 55.2779998779296875 53.832000732421875 51.5260009765625 49.37799835205078125 49.412998199462890625 49.532001495361328125 49.5579986572265625 49.2949981689453125 48.490001678466796875 48.305999755859375 48.12200164794921875 48.30699920654296875 49.52700042724609375 50.7779998779296875 52.076000213623046875 53.37400054931640625 54.23699951171875 54.590000152587890625 54.618999481201171875 54.16899871826171875 53.353000640869140625 52.65200042724609375 51.478000640869140625 50.279998779296875 48.811000823974609375
75 75 75 75 75 75 74.1880035400390625 73.19699859619140625 72.2050018310546875 71.2129974365234375 70.2220001220703125 69.470001220703125 68.80300140380859375 68.1320037841796875 67.46199798583984375 66.7910003662109375 66.12000274658203125 65.44699859619140625 64.832000732421875 64.34200286865234375 63.84999847412109375 63.353000640869140625 62.7910003662109375 62.199001312255859375 61.784000396728515625 61.49700164794921875 61.12400054931640625 60.72100067138671875 60.319000244140625 60 59.437999725341796875 58.448001861572265625 57.457000732421875 56.466999053955078125 55.476001739501953125 54.021999359130859375 52.13800048828125 50.25299835205078125 46.797000885009765625 43.9589996337890625 41.907001495361328125 39.8769989013671875 38.4029998779296875 37.018001556396484375 35.699001312255859375 30.6529998779296875 27.781000137329101562 26.177000045776367188 24.715999603271484375 23.781000137329101562 22.634000778198242188 21.169000625610351562 18.5410003662109375 18.884000778198242188 17.944000244140625 16.947000503540039062 14.354000091552734375 13.043999671936035156 12.619999885559082031 12.19499969482421875 11.770999908447265625 11.3470001220703125 10.923000335693359375 10.723999977111816406 10.560999870300292969 10.399999618530273438 10.239999771118164062 10.081999778747558594 10 10 10 10 10 10 10 10 10.619999885559082031 11.920999526977539062 13.329000473022460938 14.737000465393066406 15.942000389099121094 17.099000930786132812 18.25099945068359375 19.4850006103515625 21.0279998779296875 22.643999099731445312 24.218999862670898438 30.201999664306640625 35.938999176025390625 37.70999908447265625 39.479999542236328125 45.108001708984375 46.76399993896484375 48.40200042724609375 50.296001434326171875 55.042999267578125 57.661998748779296875 60.4329986572265625 64.5059967041015625 68.57900238037109375 75.6869964599609375 82.76399993896484375 90.01399993896484375 90.70999908447265625 91.707000732421875 92.7389984130859375 93.772003173828125 94.470001220703125 94.4720001220703125 94.33499908447265625 93.79399871826171875 93.25299835205078125 92.904998779296875 92.46099853515625 91.52899932861328125 90.3119964599609375 90 89.70600128173828125 89.00299835205078125 88.3000030517578125 87.59999847412109375 86.9010009765625 86.20099639892578125 85.5019989013671875 83.85199737548828125 79.90000152587890625 76.52100372314453125 73.20999908447265625 70.31400299072265625 67.03399658203125 64.483001708984375 62.75 61.016998291015625 59.36100006103515625 57.12799835205078125 54.6230010986328125 52.368000030517578125 51.0670013427734375 51.36100006103515625 52.82199859619140625 54.326000213623046875 55.6529998779296875 56.462001800537109375 56.59400177001953125 55.824001312255859375 54.52700042724609375 52.720001220703125 51.9850006103515625 49.6790008544921875 48.549999237060546875 48.506000518798828125 48.615001678466796875 48.451000213623046875 48.007999420166015625 47.230998992919921875 46.87799835205078125 46.6959991455078125 47.716999053955078125 48.784000396728515625 50.117000579833984375 51.141998291015625 52.16699981689453125 53.2220001220703125 53.41500091552734375 53.58100128173828125 53.312000274658203125 52.80899810791015625 51.980998992919921875 51.095001220703125 50.006999969482421875 48.23799896240234375
75 75 75 75 75 74.6750030517578125 73.8769989013671875 73.03099822998046875 72.03900146484375 71.04799652099609375 70.055999755859375 69.30999755859375 68.5780029296875 67.917999267578125 67.2610015869140625 66.60399627685546875 65.94699859619140625 65.28099822998046875 64.70999908447265625 64.1360015869140625 63.54399871826171875 62.952999114990234375 62.36100006103515625 61.770000457763671875 61.282001495361328125 60.937000274658203125 60.625 60.354999542236328125 60.05699920654296875 59.633998870849609375 58.96099853515625 58.365001678466796875 57.7480010986328125 56.897998809814453125 55.908000946044921875 54.842998504638671875 52.95800018310546875 51.05899810791015625 48.23600006103515625 44.674999237060546875 42.63899993896484375 40.6399993896484375 39.0970001220703125 37.76200103759765625 36.47100067138671875 35.185001373291015625 29.614999771118164062 28.02899932861328125 26.51300048828125 25.228000640869140625 23.962999343872070312 22.5709991455078125 20.739999771118164062 19.408000946044921875 18.406000137329101562 16.030000686645507812 13.661000251770019531 13.237000465393066406 12.812999725341796875 12.387999534606933594 11.963999748229980469 11.539999961853027344 11.116000175476074219 10.692000389099121094 10.505999565124511719 10.342000007629394531 10.18000030517578125 10.019000053405761719 10 10 10 10 10 10 10 10 10 11.413000106811523438 13.298000335693359375 15.109999656677246094 16.219999313354492188 17.287000656127929688 18.353000640869140625 19.420000076293945312 20.81800079345703125 22.613000869750976562 24.354000091552734375 30.815000534057617188 35.90599822998046875 37.6660003662109375 39.417999267578125 44.082000732421875 46.506000518798828125 48.269001007080078125 50.186000823974609375 54.582000732421875 57.43399810791015625 60.231998443603515625 64.46600341796875 68.79000091552734375 76.3249969482421875 82.3379974365234375 90.0839996337890625 90.79900360107421875 91.503997802734375 92.23600006103515625 93.2689971923828125 94.285003662109375 94.28800201416015625 93.858001708984375 93.3170013427734375 92.7760009765625 92.2389984130859375 91.88300323486328125 91.410003662109375 90.2129974365234375 90 89.49700164794921875 88.8690032958984375 88.24500274658203125 87.6100006103515625 86.91699981689453125 86.2180023193359375 85.51799774169921875 83.9459991455078125 79.90899658203125 76.81099700927734375 73.62400054931640625 70.1869964599609375 67.42299652099609375 64.80100250244140625 63.069000244140625 61.337001800537109375 59.144001007080078125 56.5540008544921875 54.01599884033203125 51.479999542236328125 50 50 50.14099884033203125 51.601001739501953125 52.842998504638671875 53.949001312255859375 54.272998809814453125 53.422000885009765625 51.951000213623046875 50.9459991455078125 50.13800048828125 47.832000732421875 47.7220001220703125 47.76599884033203125 47.699001312255859375 47.548000335693359375 46.8079986572265625 46.0019989013671875 45.450000762939453125 45.845001220703125 46.78099822998046875 48.101001739501953125 49.47299957275390625 50.631000518798828125 51.629001617431640625 52.3899993896484375 52.358001708984375 52.523998260498046875 52.44100189208984375 51.993999481201171875 51.422000885009765625 50.59400177001953125 49.5989990234375 47.5989990234375
75 75 75 75 74.9199981689453125 74.13700103759765625 73.3639984130859375 72.59200286865234375 71.8040008544921875 70.8820037841796875 69.91899871826171875 69.1869964599609375 68.45600128173828125 67.72499847412109375 67.02300262451171875 66.365997314453125 65.7089996337890625 65.052001953125 64.38300323486328125 63.70999908447265625 63.115001678466796875 62.522998809814453125 61.93199920654296875 61.340000152587890625 60.787998199462890625 60.435001373291015625 60.090000152587890625 59.63899993896484375 59.296001434326171875 58.965000152587890625 58.6269989013671875 58.28900146484375 57.6139984130859375 56.8339996337890625 56.0540008544921875 55.273998260498046875 53.72299957275390625 51.758998870849609375 49.60900115966796875 45.866001129150390625 43.48699951171875 41.61299896240234375 39.83100128173828125 38.54199981689453125 37.30699920654296875 36.060001373291015625 34.157001495361328125 29.4850006103515625 28.962999343872070312 27.913000106811523438 25.408000946044921875 23.881999969482421875 22.052000045776367188 19.865999221801757812 17.707000732421875 14.607000350952148438 13.854000091552734375 13.43000030517578125 13.005999565124511719 12.581999778747558594 12.156999588012695312 11.732999801635742188 11.309000015258789062 10.885000228881835938 10.460000038146972656 10.288000106811523438 10.123999595642089844 10 10 10 10 10 10 10 10 10 10 11.237000465393066406 13.43000030517578125 15.288000106811523438 16.298999786376953125 17.30500030517578125 18.309000015258789062 19.281999588012695312 20.54199981689453125 22.659999847412109375 24.61199951171875 31.870000839233398438 35.810001373291015625 37.5260009765625 39.243000030517578125 42.798999786376953125 45.962001800537109375 47.951000213623046875 49.939998626708984375 53.979000091552734375 57.06600189208984375 59.841999053955078125 64.4029998779296875 69.625 73.93599700927734375 81.878997802734375 90.08499908447265625 90.8130035400390625 91.5410003662109375 92.2689971923828125 92.9889984130859375 93.79799652099609375 93.9219970703125 93.3809967041015625 92.839996337890625 92.29900360107421875 91.75800323486328125 91.3430023193359375 90.84999847412109375 90.11499786376953125 89.79000091552734375 89.2220001220703125 88.54900360107421875 87.92400360107421875 87.3000030517578125 86.67600250244140625 86.052001953125 85.42800140380859375 84.0370025634765625 79.98999786376953125 76.95400238037109375 73.58499908447265625 69.99199676513671875 67.30500030517578125 65.1569976806640625 63.319000244140625 61.355998992919921875 59.1660003662109375 56.465999603271484375 53.858001708984375 51.369998931884765625 49.4980010986328125 48.04000091552734375 47.698001861572265625 48.62200164794921875 49.618999481201171875 50.51399993896484375 50.990001678466796875 50.62799835205078125 49.61100006103515625 49.171001434326171875 48.2910003662109375 46.851001739501953125 46.894001007080078125 46.937999725341796875 46.782001495361328125 46.645000457763671875 45.77700042724609375 44.7760009765625 44.37200164794921875 44.743000030517578125 46.046001434326171875 47.345001220703125 48.602001190185546875 50.055999755859375 50.980998992919921875 51.54000091552734375 51.70800018310546875 51.467998504638671875 51.575000762939453125 51.12799835205078125 50.65599822998046875 50.034000396728515625 48.43199920654296875 46.43199920654296875
74.70200347900390625 74.92600250244140625 74.98999786376953125 74.8899993896484375 74.45099639892578125 73.7819976806640625 73.11499786376953125 72.292999267578125 71.45099639892578125 70.60900115966796875 69.785003662109375 69.06500244140625 68.3339996337890625 67.60199737548828125 66.871002197265625 66.1399993896484375 65.47100067138671875 64.81099700927734375 64.1399993896484375 63.470001220703125 62.799999237060546875 62.12200164794921875 61.5019989013671875 60.910999298095703125 60.311000823974609375 59.88800048828125 59.254001617431640625 58.82199859619140625 58.506000518798828125 58.230998992919921875 57.893001556396484375 57.55500030517578125 57.216999053955078125 56.879001617431640625 56.37400054931640625 55.59400177001953125 54.52700042724609375 52.54199981689453125 50.478000640869140625 47.220001220703125 44.4010009765625 42.58100128173828125 40.86100006103515625 39.42800140380859375 38.241001129150390625 37.145999908447265625 35.979000091552734375 34.092998504638671875 32.533000946044921875 28.267000198364257812 26.740999221801757812 25.406000137329101562 23.434000015258789062 20.773000717163085938 16.283000946044921875 14.4720001220703125 14.046999931335449219 13.623000144958496094 13.199000358581542969 12.774999618530273438 12.350999832153320312 11.925999641418457031 11.501999855041503906 11.078000068664550781 10.654000282287597656 10.234999656677246094 10.06999969482421875 10 10 10 10 10 10 10 10 10 10 11.057999610900878906 13.366000175476074219 15.284000396728515625 16.254999160766601562 17.19300079345703125 18.129999160766601562 19.066999435424804688 20.010000228881835938 22.329000473022460938 24.732999801635742188 31.858999252319335938 35.685001373291015625 37.354000091552734375 39.0260009765625 41.8079986572265625 45.243999481201171875 47.279998779296875 49.5800018310546875 53.324001312255859375 56.620998382568359375 59.412998199462890625 64.24500274658203125 70.055999755859375 73.60199737548828125 81.8040008544921875 90.0469970703125 90.77500152587890625 91.5019989013671875 92.227996826171875 92.94699859619140625 93.5370025634765625 93.39499664306640625 92.89299774169921875 92.36199951171875 91.82199859619140625 91.28099822998046875 90.80300140380859375 90.30899810791015625 89.75099945068359375 89.31800079345703125 88.8040008544921875 88.26000213623046875 87.60399627685546875 86.98000335693359375 86.3560028076171875 85.73200225830078125 85.28299713134765625 83.878997802734375 80.14800262451171875 77.0189971923828125 73.63300323486328125 69.85700225830078125 67.677001953125 65.4889984130859375 63.430999755859375 61.410999298095703125 59.270000457763671875 56.86100006103515625 54.452999114990234375 51.893001556396484375 49.091999053955078125 46.326999664306640625 45.060001373291015625 45.273998260498046875 45.868000030517578125 47.1100006103515625 47.569000244140625 47.534000396728515625 47.175998687744140625 47.396999359130859375 46.444000244140625 46.022998809814453125 46.0670013427734375 46.1100006103515625 46.08499908447265625 45.742000579833984375 44.6269989013671875 43.199001312255859375 42.34799957275390625 42.9850006103515625 44.926998138427734375 46.226001739501953125 47.56999969482421875 49.055999755859375 50.323001861572265625 50.689998626708984375 50.858001708984375 50.845001220703125 50.576999664306640625 50.26200103759765625 49.463001251220703125 48.01399993896484375 46.34799957275390625 44.404998779296875
74.29900360107421875 74.3639984130859375 74.4069976806640625 74.30999755859375 73.947998046875 73.4120025634765625 72.78800201416015625 72.0469970703125 71.31099700927734375 70.47899627685546875 69.6620025634765625 68.87599945068359375 68.12000274658203125 67.404998779296875 66.68900299072265625 65.9739990234375 65.259002685546875 64.59100341796875 63.898998260498046875 63.228000640869140625 62.5579986572265625 61.88800048828125 61.216999053955078125 60.534000396728515625 60 58.98600006103515625 58.352001190185546875 57.995998382568359375 57.83499908447265625 57.49700164794921875 57.159000396728515625 56.8209991455078125 56.483001708984375 56.145000457763671875 55.80699920654296875 55.46900177001953125 55.131000518798828125 53.269001007080078125 51.159999847412109375 48.562999725341796875 45.548999786376953125 43.685001373291015625 42.0800018310546875 40.54199981689453125 39.394001007080078125 38.4160003662109375 37.425998687744140625 36.240001678466796875 35.016998291015625 29.3470001220703125 27.993999481201171875 26.631999969482421875 24.950000762939453125 21.896999359130859375 16.395000457763671875 14.88899993896484375 14.175999641418457031 13.760999679565429688 13.3470001220703125 12.934000015258789062 12.520999908447265625 12.107000350952148438 11.694000244140625 11.270999908447265625 10.8470001220703125 10.423000335693359375 10.017000198364257812 10 10 10 10 10 10 10 10 10 10 10.843000411987304688 13.043999671936035156 15.102999687194824219 16.04000091552734375 16.976999282836914062 17.91500091552734375 18.851999282836914062 19.788999557495117188 21.966999053955078125 24.784000396728515625 32.02500152587890625 35.479999542236328125 37.0989990234375 38.71900177001953125 40.6529998779296875 44.04000091552734375 46.701999664306640625 49.063999176025390625 52.620998382568359375 56.16899871826171875 59.3079986572265625 63.852001190185546875 70.29900360107421875 73.54000091552734375 79.0930023193359375 89.56500244140625 90.69499969482421875 91.40899658203125 92.09999847412109375 92.59600067138671875 92.947998046875 92.74500274658203125 92.292999267578125 91.79799652099609375 91.2949981689453125 90.785003662109375 90.26200103759765625 89.667999267578125 88.95999908447265625 88.3990020751953125 88.04599761962890625 87.779998779296875 87.2969970703125 86.660003662109375 86.04399871826171875 85.634002685546875 85.17099761962890625 83.48400115966796875 80.4029998779296875 76.9459991455078125 73.4160003662109375 69.63500213623046875 67.2649993896484375 65.1719970703125 63.159000396728515625 61.325000762939453125 59.408000946044921875 57.27500152587890625 55.27700042724609375 52.88800048828125 49.953998565673828125 45.3489990234375 44.604000091552734375 43.13700103759765625 42.993000030517578125 43.6269989013671875 43.96099853515625 44.241001129150390625 44.47299957275390625 44.865001678466796875 45.1510009765625 45.19499969482421875 45.2389984130859375 45.283000946044921875 45.326000213623046875 44.71099853515625 43.006000518798828125 41.606998443603515625 40.509998321533203125 40.048999786376953125 42.292999267578125 45.108001708984375 46.47499847412109375 47.68000030517578125 49.201999664306640625 50 50.007999420166015625 50.175998687744140625 49.595001220703125 48.242000579833984375 46.94699859619140625 45.605998992919921875 43.659999847412109375 41.26599884033203125
73.75 73.80300140380859375 73.82199859619140625 73.73000335693359375 73.41699981689453125 72.97699737548828125 72.39099884033203125 71.7649993896484375 71.05300140380859375 70.30899810791015625 69.535003662109375 68.75499725341796875 67.970001220703125 67.18399810791015625 66.4550018310546875 65.73999786376953125 65.0240020751953125 64.3990020751953125 63.77700042724609375 63.15399932861328125 62.46900177001953125 61.766998291015625 61.06600189208984375 60.367000579833984375 59.2649993896484375 58.18199920654296875 57.450000762939453125 57.1699981689453125 57.09999847412109375 56.76200103759765625 56.423999786376953125 56.08599853515625 55.7480010986328125 55.409999847412109375 55.07199859619140625 55 55 54.28900146484375 52.103000640869140625 49.646999359130859375 47.226001739501953125 44.8730010986328125 43.2949981689453125 41.90599822998046875 40.842998504638671875 39.95600128173828125 39.03099822998046875 38.15399932861328125 36.6699981689453125 34.21900177001953125 29.238000869750976562 27.608999252319335938 25.77899932861328125 22.79199981689453125 18.590000152587890625 17.076000213623046875 16.29000091552734375 15.503000259399414062 14.715999603271484375 13.928999900817871094 13.142000198364257812 12.354999542236328125 11.5839996337890625 11.168999671936035156 10.753999710083007812 10.338000297546386719 9.965000152587890625 9.8439998626708984375 9.86100006103515625 9.8789997100830078125 9.895999908447265625 9.9130001068115234375 9.930999755859375 9.9479999542236328125 9.965000152587890625 9.9820003509521484375 10 10.531000137329101562 12.553000450134277344 14.574999809265136719 15.743000030517578125 16.684999465942382812 17.631999969482421875 18.606000900268554688 19.579000473022460938 21.618000030517578125 26.090999603271484375 31.5970001220703125 35.21900177001953125 36.79000091552734375 38.354000091552734375 39.909000396728515625 43.037998199462890625 45.69300079345703125 48.076000213623046875 51.881999969482421875 55.713001251220703125 59.74700164794921875 62.842998504638671875 70.30899810791015625 73.220001220703125 79.108001708984375 87.6880035400390625 90.56400299072265625 91.2429962158203125 91.65399932861328125 92.0059967041015625 92.358001708984375 92.08699798583984375 91.6510009765625 91.19000244140625 90.6999969482421875 90.197998046875 89.5110015869140625 88.8730010986328125 88.18499755859375 87.5780029296875 87.0469970703125 86.759002685546875 86.4929962158203125 86.17099761962890625 85.71099853515625 85.1829986572265625 84.51599884033203125 83.0110015869140625 80.628997802734375 77.2519989013671875 73.029998779296875 69.40599822998046875 67.01300048828125 64.70800018310546875 63.090999603271484375 61.368000030517578125 59.4589996337890625 57.632999420166015625 55.953998565673828125 53.578998565673828125 50.46900177001953125 46.216999053955078125 43.56999969482421875 41.952999114990234375 40.712001800537109375 40 40.755001068115234375 41.819000244140625 42.483001708984375 43.148998260498046875 43.825000762939453125 44.674999237060546875 45 45 44.284000396728515625 42.770999908447265625 41.2910003662109375 39.832000732421875 38.550998687744140625 39.201000213623046875 40.328998565673828125 42.96900177001953125 44.898998260498046875 46.03900146484375 46.95999908447265625 48.5019989013671875 49.54399871826171875 48.22100067138671875 46.73600006103515625 45.569000244140625 44.175998687744140625 42.30300140380859375 40.228000640869140625 38.37200164794921875
73.19899749755859375 73.240997314453125 73.23799896240234375 73.16300201416015625 72.904998779296875 72.48400115966796875 71.9680023193359375 71.371002197265625 70.72499847412109375 70.04199981689453125 69.3000030517578125 68.54900360107421875 67.79000091552734375 67.0410003662109375 66.2779998779296875 65.50499725341796875 64.8170013427734375 64.19499969482421875 63.573001861572265625 62.951000213623046875 62.327999114990234375 61.70600128173828125 61.048000335693359375 60.3470001220703125 58.990001678466796875 57.411998748779296875 56.548999786376953125 56.34400177001953125 56.366001129150390625 56.0279998779296875 55.689998626708984375 55.352001190185546875 55.01399993896484375 55 55 55 55 55 53.118999481201171875 50.33300018310546875 48.180999755859375 46.1139984130859375 44.506000518798828125 43.2389984130859375 41.891998291015625 41.090999603271484375 40.56999969482421875 40.018001556396484375 38.451000213623046875 34.72100067138671875 32.52500152587890625 28.877000808715820312 26.576000213623046875 23.589000701904296875 20.273000717163085938 19.173000335693359375 18.257999420166015625 17.343999862670898438 16.4290008544921875 15.515000343322753906 14.600999832153320312 13.685999870300292969 12.772000312805175781 11.857000350952148438 10.942999839782714844 10.369000434875488281 9.9180002212524414062 9.7259998321533203125 9.6619997024536132812 9.6789999008178710938 9.6969995498657226562 9.7139997482299804688 9.7309999465942382812 9.7489995956420898438 9.7659997940063476562 9.7829999923706054688 9.840000152587890625 10.246999740600585938 12.171999931335449219 14.079000473022460938 15.456999778747558594 16.422000885009765625 17.386999130249023438 18.368000030517578125 19.396999359130859375 21.954999923706054688 26.2649993896484375 30.87599945068359375 34.5970001220703125 36.3860015869140625 37.939998626708984375 39.493000030517578125 41.852001190185546875 44.62799835205078125 47.391998291015625 51.0110015869140625 55.1959991455078125 57.976001739501953125 62.15599822998046875 70.39099884033203125 74.69899749755859375 78.84799957275390625 85.35199737548828125 90.3600006103515625 90.71199798583984375 91.06400299072265625 91.4160003662109375 91.73200225830078125 91.4219970703125 90.99700164794921875 90.55500030517578125 90.0879974365234375 89.207000732421875 88.35700225830078125 87.80999755859375 87.378997802734375 86.70099639892578125 86.21600341796875 85.73799896240234375 85.4369964599609375 84.9199981689453125 84.6269989013671875 84.26300048828125 83.65000152587890625 82.19100189208984375 80.73699951171875 76.8339996337890625 72.63899993896484375 69.125 66.4010009765625 64.2570037841796875 62.71900177001953125 61.180999755859375 59.590999603271484375 57.826000213623046875 56.05500030517578125 53.713001251220703125 50.59999847412109375 47.00299835205078125 43.9420013427734375 41.506999969482421875 39.87799835205078125 38.952999114990234375 38.520999908447265625 39.53900146484375 40.733001708984375 41.548000335693359375 42.147998809814453125 42.952999114990234375 43.479999542236328125 43.089000701904296875 41.879001617431640625 40.4420013427734375 38.481998443603515625 37.272998809814453125 36.55300140380859375 37.32199859619140625 38.812000274658203125 40.944000244140625 42.662998199462890625 43.673999786376953125 44.13700103759765625 44.340999603271484375 44.340000152587890625 44.029998779296875 43.243000030517578125 42.004001617431640625 40.490001678466796875 38.629001617431640625 36.88800048828125 35.51399993896484375
72.647003173828125 72.6790008544921875 72.6529998779296875 72.58899688720703125 72.378997802734375 71.97699737548828125 71.5 70.957000732421875 70.34999847412109375 69.69300079345703125 68.98799896240234375 68.26399993896484375 67.51599884033203125 66.76799774169921875 66.01999664306640625 65.26799774169921875 64.62000274658203125 64.0370025634765625 63.425998687744140625 62.798999786376953125 62.1699981689453125 61.54199981689453125 60.91400146484375 60.284999847412109375 58.90000152587890625 56.9420013427734375 55.577999114990234375 55.604999542236328125 55.631999969482421875 55.29399871826171875 55 55 55 55 55 55 55 55 53.995998382568359375 51.089000701904296875 48.741001129150390625 47.130001068115234375 45.591999053955078125 44.171001434326171875 43.049999237060546875 42.23600006103515625 41.591999053955078125 40.8730010986328125 40.035999298095703125 37.992000579833984375 36.02899932861328125 31.424999237060546875 27.6959991455078125 24.294000625610351562 21.125 17.701000213623046875 16.787000656127929688 15.871999740600585938 14.95800018310546875 14.043000221252441406 13.128999710083007812 12.270999908447265625 11.901000022888183594 11.494000434875488281 10.871999740600585938 10.25 9.8800001144409179688 9.6789999008178710938 9.4879999160766601562 9.479999542236328125 9.4969997406005859375 9.5150003433227539062 9.5319995880126953125 9.548999786376953125 9.5670003890991210938 9.6350002288818359375 9.8179998397827148438 10.059000015258789062 11.810999870300292969 13.560000419616699219 15.170999526977539062 16.167999267578125 17.187000274658203125 18.198999404907226562 19.27899932861328125 21.226999282836914062 24.856000900268554688 30.19499969482421875 33.604000091552734375 35.9160003662109375 37.46900177001953125 39.021999359130859375 40.967998504638671875 43.578998565673828125 46.56600189208984375 50.09999847412109375 54.01399993896484375 57.074001312255859375 60.564998626708984375 69.95800018310546875 72.4219970703125 75.91300201416015625 82.9530029296875 90 90.1230010986328125 90.47499847412109375 90.82700347900390625 91.06600189208984375 90.7570037841796875 90.3430023193359375 89.79599761962890625 88.79799652099609375 87.7760009765625 87.0240020751953125 86.82199859619140625 86.3990020751953125 85.88500213623046875 85.32900238037109375 84.82900238037109375 84.3600006103515625 83.93399810791015625 83.64800262451171875 83.31999969482421875 82.82399749755859375 82.01000213623046875 80.625 76.6869964599609375 72.2310028076171875 68.37599945068359375 65.529998779296875 63.87799835205078125 62.493000030517578125 61.08300018310546875 59.542999267578125 57.813999176025390625 56.046001434326171875 53.6959991455078125 50.35900115966796875 47.355998992919921875 44.7779998779296875 41.63800048828125 39.119998931884765625 37.3639984130859375 36.52899932861328125 36.936000823974609375 37.608001708984375 39.76599884033203125 40.550998687744140625 41.02899932861328125 41.055999755859375 40.48799896240234375 38.12799835205078125 35.7389984130859375 34.602001190185546875 34.38899993896484375 34.740001678466796875 35.391998291015625 36.707000732421875 38.535999298095703125 40.7239990234375 40.90399932861328125 40.977001190185546875 40.990001678466796875 40.842998504638671875 40.37200164794921875 39.04000091552734375 37.214000701904296875 35.631999969482421875 34.269001007080078125 33.020999908447265625 30.627000808715820312
72.09600067138671875 72.1139984130859375 72.06800079345703125 71.99500274658203125 71.81500244140625 71.496002197265625 71.055999755859375 70.51599884033203125 69.9420013427734375 69.30100250244140625 68.62599945068359375 67.930999755859375 67.207000732421875 66.47899627685546875 65.7310028076171875 64.98600006103515625 64.36699676513671875 63.811000823974609375 63.22100067138671875 62.64099884033203125 62.060001373291015625 61.4550018310546875 60.83599853515625 60.216999053955078125 58.424999237060546875 56.019001007080078125 55 55 55 55 55 55 55 55 55 55 55 55 55 52.2779998779296875 49.49900054931640625 48.050998687744140625 46.603000640869140625 45.118000030517578125 43.90200042724609375 43.161998748779296875 42.375 41.44699859619140625 40.492000579833984375 39.033000946044921875 37.0670013427734375 35.542999267578125 29.775999069213867188 26.381999969482421875 21.947000503540039062 16.495000839233398438 15.314999580383300781 14.401000022888183594 13.770000457763671875 13.399999618530273438 13.031000137329101562 12.619000434875488281 11.996999740600585938 11.418999671936035156 10.786000251770019531 10.1529998779296875 9.8450002670288085938 9.6400003433227539062 9.4399995803833007812 9.2810001373291015625 9.298000335693359375 9.3149995803833007812 9.33300018310546875 9.3500003814697265625 9.43000030517578125 9.6149997711181640625 9.8039999008178710938 9.9940004348754882812 11.574000358581542969 13.196999549865722656 14.838999748229980469 15.961999893188476562 17.04199981689453125 18.121999740600585938 19.201999664306640625 20.961999893188476562 25.128999710083007812 29.72299957275390625 32.7649993896484375 35.4029998779296875 36.938999176025390625 38.470001220703125 39.995998382568359375 42.555999755859375 45.4459991455078125 49.1100006103515625 52.672000885009765625 55.91899871826171875 59.26300048828125 67.0579986572265625 71.7220001220703125 74.28900146484375 80.96399688720703125 88.552001953125 90 90 90.23699951171875 90.3990020751953125 90.09200286865234375 89.457000732421875 88.470001220703125 87.49500274658203125 86.375 85.8379974365234375 85.535003662109375 85.30500030517578125 84.91500091552734375 84.3470001220703125 83.79000091552734375 83.3939971923828125 82.96700286865234375 82.66300201416015625 82.3679962158203125 82 81.30699920654296875 80.358001708984375 75.6360015869140625 71.6790008544921875 68.0279998779296875 64.8249969482421875 63.43199920654296875 62.03900146484375 60.6510009765625 59.21099853515625 57.5800018310546875 55.9329986572265625 53.44300079345703125 50.049999237060546875 47.83599853515625 45.6399993896484375 42.409999847412109375 39.032001495361328125 36.301998138427734375 35 35 34.84400177001953125 34.576000213623046875 34.5579986572265625 34.605998992919921875 34.311000823974609375 33.745998382568359375 32.65000152587890625 31.954000473022460938 32.01300048828125 32.6360015869140625 33.3489990234375 33.964000701904296875 34.595001220703125 34.88899993896484375 34.88700103759765625 38.187999725341796875 38.50299835205078125 37.44499969482421875 34.463001251220703125 34.393001556396484375 34.148998260498046875 33.462001800537109375 32.87400054931640625 31.159000396728515625 29.631999969482421875 28.628999710083007812
71.5449981689453125 71.54799652099609375 71.483001708984375 71.40799713134765625 71.26799774169921875 70.983001708984375 70.5670013427734375 70.0780029296875 69.48000335693359375 68.86299896240234375 68.233001708984375 67.5709991455078125 66.8820037841796875 66.167999267578125 65.43499755859375 64.74700164794921875 64.12799835205078125 63.507999420166015625 62.93199920654296875 62.38700103759765625 61.8209991455078125 61.243000030517578125 60.673999786376953125 60.082000732421875 57.6399993896484375 55 55 55 55 55 55 55 55 55 55 55 55 55 55 53.29000091552734375 49.85900115966796875 48.410999298095703125 47.020000457763671875 45.83499908447265625 44.715000152587890625 43.7779998779296875 42.810001373291015625 41.7779998779296875 40.743000030517578125 39.50299835205078125 37.84999847412109375 36.36199951171875 34.6660003662109375 27.77700042724609375 22.659999847412109375 17.327999114990234375 14.899000167846679688 14.529000282287597656 14.159999847412109375 13.744000434875488281 13.187000274658203125 12.5839996337890625 12.003999710083007812 11.467000007629394531 10.786000251770019531 10.114000320434570312 9.81999969482421875 9.6079998016357421875 9.40200042724609375 9.1999998092651367188 9.0989999771118164062 9.1160001754760742188 9.1330003738403320312 9.2250003814697265625 9.4119997024536132812 9.6029996871948242188 9.7930002212524414062 9.9829998016357421875 11.477000236511230469 13.038999557495117188 14.517000198364257812 15.739000320434570312 16.836999893188476562 17.934000015258789062 19.037000656127929688 21.204999923706054688 25.684000015258789062 29.19300079345703125 32.422000885009765625 34.73699951171875 36.33499908447265625 37.824001312255859375 39.2949981689453125 41.542999267578125 44.478000640869140625 47.965000152587890625 51.301998138427734375 54.233001708984375 58.09999847412109375 64.74700164794921875 70.628997802734375 73.70800018310546875 78.352996826171875 84.03399658203125 89.30899810791015625 89.802001953125 89.72100067138671875 89.65599822998046875 89.332000732421875 88.70999908447265625 87.6790008544921875 86.6100006103515625 85.26399993896484375 84.98799896240234375 84.24900054931640625 84.10399627685546875 83.80500030517578125 83.28299713134765625 82.7519989013671875 82.36299896240234375 82.02100372314453125 81.677001953125 81.384002685546875 81.06999969482421875 80.572998046875 79.21399688720703125 74.5149993896484375 70.75099945068359375 67.0970001220703125 64.391998291015625 62.9589996337890625 61.577999114990234375 60.187000274658203125 58.74700164794921875 57.285999298095703125 55.824001312255859375 53.641998291015625 50.647998809814453125 48.368000030517578125 46.312000274658203125 43.57199859619140625 40.08300018310546875 35.826000213623046875 35 35 34.245998382568359375 33.3209991455078125 33.11100006103515625 33.019001007080078125 32.30500030517578125 31.128999710083007812 29.311000823974609375 28.8209991455078125 30.25099945068359375 31.233999252319335938 32.14099884033203125 32.93399810791015625 33.619998931884765625 34.30699920654296875 35.3489990234375 35.854999542236328125 36.36100006103515625 35.730998992919921875 33.15599822998046875 32.7760009765625 32.310001373291015625 31.451999664306640625 30.358999252319335938 29.163999557495117188 28.118000030517578125 27.143999099731445312
70.9929962158203125 70.9739990234375 70.8990020751953125 70.822998046875 70.69699859619140625 70.44699859619140625 70.08699798583984375 69.54199981689453125 68.98600006103515625 68.38500213623046875 67.77700042724609375 67.160003662109375 66.522003173828125 65.84200286865234375 65.13899993896484375 64.457000732421875 63.811000823974609375 63.269001007080078125 62.648998260498046875 62.03099822998046875 61.509998321533203125 60.962001800537109375 60.407001495361328125 59.305999755859375 56.608001708984375 55 55 55 54.426998138427734375 55 55 55 55 55 55 55 55 55 55 54.21099853515625 50.55300140380859375 48.921001434326171875 47.662998199462890625 46.40000152587890625 45.176998138427734375 44.145000457763671875 43.05699920654296875 41.98600006103515625 40.866001129150390625 39.66500091552734375 38.23400115966796875 36.823001861572265625 35.535999298095703125 29.131999969482421875 24.965000152587890625 20.461999893188476562 16.340000152587890625 14.911000251770019531 14.428000450134277344 13.939000129699707031 13.432999610900878906 12.814999580383300781 12.156999588012695312 11.470999717712402344 10.815999984741210938 10.116000175476074219 9.8179998397827148438 9.6000003814697265625 9.3830003738403320312 9.16699981689453125 8.9610004425048828125 8.91699981689453125 9.020999908447265625 9.2110004425048828125 9.4010000228881835938 9.590999603271484375 9.7810001373291015625 9.9720001220703125 11.217000007629394531 12.696000099182128906 14.175000190734863281 15.484999656677246094 16.58300018310546875 17.770000457763671875 18.965000152587890625 20.83499908447265625 26.106000900268554688 29.172000885009765625 31.691999435424804688 33.838001251220703125 35.606998443603515625 37.03900146484375 38.47499847412109375 39.89099884033203125 43.839000701904296875 47.174999237060546875 50.018001556396484375 52.75 55.7519989013671875 62.563999176025390625 68.76000213623046875 72.62999725341796875 76.33899688720703125 80.50800323486328125 85.5540008544921875 87.08599853515625 87.8990020751953125 88.2649993896484375 88.53299713134765625 87.96199798583984375 86.930999755859375 85.90000152587890625 85 83.832000732421875 82.98999786376953125 82.86199951171875 82.62999725341796875 82.2310028076171875 81.7129974365234375 81.33300018310546875 81.02899932861328125 80.6920013427734375 80.39800262451171875 80.10500335693359375 79.05500030517578125 76.57399749755859375 73.2129974365234375 69.65599822998046875 66.253997802734375 64.04799652099609375 62.5540008544921875 61.101001739501953125 59.70600128173828125 58.41699981689453125 57.176998138427734375 56.090999603271484375 55.005001068115234375 51.96099853515625 49.16500091552734375 46.94100189208984375 44.272998809814453125 41.0410003662109375 37.534999847412109375 35 34.978000640869140625 33.646999359130859375 32.3170013427734375 31.839000701904296875 31.430999755859375 30.242000579833984375 28.493000030517578125 26.516000747680664062 26.017000198364257812 26.430999755859375 30.204999923706054688 31.202999114990234375 31.95999908447265625 32.671001434326171875 33.5149993896484375 33.45800018310546875 33.521999359130859375 34.0279998779296875 34.018001556396484375 31.898000717163085938 31.201999664306640625 30.573999404907226562 29.517000198364257812 28.353000640869140625 27.62400054931640625 26.604999542236328125 25.676000595092773438
70.4420013427734375 70.38899993896484375 70.31400299072265625 70.2389984130859375 70.12200164794921875 69.85700225830078125 69.43000030517578125 68.95099639892578125 68.43000030517578125 67.87799835205078125 67.2910003662109375 66.68499755859375 66.07199859619140625 65.45200347900390625 64.80300140380859375 64.13800048828125 63.518001556396484375 62.8489990234375 62.285999298095703125 61.75099945068359375 61.171001434326171875 60.61299896240234375 60.08599853515625 58.008998870849609375 55.55899810791015625 54.865001678466796875 54.26200103759765625 53.659999847412109375 53.6529998779296875 54.743000030517578125 55 55 55 55 55 55 55 55 55 54.448001861572265625 51.2949981689453125 49.255001068115234375 47.994998931884765625 46.792999267578125 45.550998687744140625 44.3600006103515625 43.22100067138671875 42.0800018310546875 40.8899993896484375 39.6699981689453125 38.467998504638671875 37.22499847412109375 35.952999114990234375 31.976999282836914062 25.468000411987304688 21.93000030517578125 19.476999282836914062 17.322000503540039062 14.843000411987304688 14.23600006103515625 13.633000373840332031 12.942999839782714844 12.303000450134277344 11.645000457763671875 10.904999732971191406 10.164999961853027344 9.8299999237060546875 9.61100006103515625 9.3920001983642578125 9.173999786376953125 8.9560003280639648438 8.868000030517578125 9.0100002288818359375 9.1999998092651367188 9.3900003433227539062 9.5799999237060546875 9.770999908447265625 9.9610004425048828125 11.121999740600585938 12.536000251770019531 13.949999809265136719 15.25 16.506999969482421875 17.697999954223632812 18.893999099731445312 20.464000701904296875 26.11199951171875 28.795999526977539062 31.045999526977539062 33.016998291015625 34.73400115966796875 36.14099884033203125 37.56999969482421875 38.99900054931640625 41.479000091552734375 45.909999847412109375 48.7350006103515625 51.589000701904296875 54.270999908447265625 60.1139984130859375 65.9120025634765625 71.0839996337890625 74.67800140380859375 78.779998779296875 82.63700103759765625 85.15899658203125 86.15399932861328125 86.70200347900390625 87.24900054931640625 87.214996337890625 86.34100341796875 85.6269989013671875 84.6399993896484375 82.6750030517578125 81.73000335693359375 81.61299896240234375 81.4329986572265625 81.08699798583984375 80.6620025634765625 80.302001953125 79.9980010986328125 79.61100006103515625 78.90599822998046875 78.358001708984375 77.167999267578125 74.7180023193359375 71.93199920654296875 68.94300079345703125 65.9720001220703125 63.981998443603515625 62.40599822998046875 60.839000701904296875 59.4850006103515625 58.3860015869140625 57.3040008544921875 56.38800048828125 55.52700042724609375 53.8600006103515625 50.345001220703125 47.435001373291015625 44.421001434326171875 41.75299835205078125 38.563999176025390625 35.865001678466796875 34.379001617431640625 33.048999786376953125 31.718999862670898438 30.729999542236328125 29.7910003662109375 28.201000213623046875 26.16500091552734375 24.503999710083007812 24.23600006103515625 24.88899993896484375 26.783000946044921875 30.40399932861328125 31.261999130249023438 32.106998443603515625 32.674999237060546875 32.51399993896484375 32.008998870849609375 31.69499969482421875 32.089000701904296875 30.641000747680664062 29.857000350952148438 28.614000320434570312 27.375 26.294000625610351562 25.66500091552734375 24.895000457763671875 23.857000350952148438
69.84600067138671875 69.7239990234375 69.6179962158203125 69.51200103759765625 69.371002197265625 69.0839996337890625 68.6999969482421875 68.26599884033203125 67.78600311279296875 67.31600189208984375 66.76799774169921875 66.1829986572265625 65.589996337890625 64.98400115966796875 64.3470001220703125 63.7389984130859375 63.131999969482421875 62.4739990234375 61.909000396728515625 61.296001434326171875 60.76200103759765625 60.227001190185546875 59.0670013427734375 56.964000701904296875 54.602001190185546875 53.494998931884765625 52.891998291015625 52.29000091552734375 52.923999786376953125 54.0149993896484375 55 55 55 55 55 55 55 55 55 54 51.60900115966796875 49.574001312255859375 48.311000823974609375 47.048000335693359375 45.7480010986328125 44.49900054931640625 43.266998291015625 42.034999847412109375 40.80300140380859375 39.58599853515625 38.396999359130859375 37.207000732421875 36.01300048828125 33 24.142999649047851562 22.207000732421875 20.898000717163085938 20 16.246000289916992188 14.545000076293945312 13.897000312805175781 13.170999526977539062 12.439999580383300781 11.73600006103515625 10.982999801635742188 10.230999946594238281 9.8489999771118164062 9.631999969482421875 9.4160003662109375 9.1990003585815429688 9.020000457763671875 9.0860004425048828125 9.1529998779296875 9.2189998626708984375 9.3629999160766601562 9.5670003890991210938 9.7600002288818359375 9.9499998092651367188 11.0410003662109375 12.38899993896484375 13.644000053405761719 14.899000167846679688 16.159999847412109375 17.422000885009765625 18.684000015258789062 20.542999267578125 26.003999710083007812 28.329000473022460938 30.642000198364257812 32.2910003662109375 33.923999786376953125 35.132999420166015625 36.550998687744140625 37.95999908447265625 39.426998138427734375 43.3470001220703125 47.417999267578125 50.358001708984375 53.130001068115234375 57.812000274658203125 63.2519989013671875 68.25099945068359375 72.41300201416015625 76.4010009765625 79.93199920654296875 82.5240020751953125 84.68199920654296875 85.53299713134765625 86.302001953125 86.72100067138671875 86.305999755859375 85.61299896240234375 84.5930023193359375 81.6139984130859375 80.46900177001953125 80.36299896240234375 80.2089996337890625 79.9250030517578125 79.56099700927734375 79.259002685546875 78.73000335693359375 78.3560028076171875 77.73200225830078125 76.52100372314453125 75.67800140380859375 73.27899932861328125 70.99199676513671875 68.68000030517578125 66.08899688720703125 64.06500244140625 62.452999114990234375 60.840000152587890625 59.518001556396484375 58.549999237060546875 57.68000030517578125 56.75 55.68399810791015625 55.042999267578125 52.11100006103515625 48.3339996337890625 44.73699951171875 42.202999114990234375 39.6529998779296875 37.245998382568359375 35.162998199462890625 33.287998199462890625 31.419000625610351562 29.552999496459960938 28.031999588012695312 26.336000442504882812 24.521999359130859375 23.23699951171875 23.002000808715820312 23.656000137329101562 24.7350006103515625 29.132999420166015625 30.697999954223632812 31.413999557495117188 31.74900054931640625 31.576000213623046875 31.062000274658203125 30.559000015258789062 30.055999755859375 28.40399932861328125 26.604000091552734375 25.56800079345703125 24.7220001220703125 23.968000411987304688 23.224000930786132812 22.579000473022460938 21.724000930786132812
69.06800079345703125 68.9329986572265625 68.792999267578125 68.6869964599609375 68.53600311279296875 68.27899932861328125 67.92400360107421875 67.5189971923828125 67.108001708984375 66.634002685546875 66.20200347900390625 65.6569976806640625 65.0749969482421875 64.4680023193359375 63.854999542236328125 63.21900177001953125 62.62400054931640625 62.0579986572265625 61.45999908447265625 60.87200164794921875 60.30699920654296875 59.327999114990234375 57.754001617431640625 56.0989990234375 53.7350006103515625 51.686000823974609375 51.521999359130859375 51.108001708984375 52.1959991455078125 52.9459991455078125 54.0970001220703125 55 55 55 55 55 55 55 54.37799835205078125 53.16699981689453125 51.453998565673828125 49.798999786376953125 48.46900177001953125 47.143001556396484375 45.83100128173828125 44.521999359130859375 43.2220001220703125 41.94699859619140625 40.715000152587890625 39.50099945068359375 38.312000274658203125 37.1230010986328125 35.95600128173828125 33.233001708984375 24.767000198364257812 23.315000534057617188 22.09799957275390625 20.843999862670898438 18.538000106811523438 14.805999755859375 14.06999969482421875 13.338000297546386719 12.604999542236328125 11.873000144958496094 11.123999595642089844 10.3339996337890625 9.875 9.659000396728515625 9.4399995803833007812 9.20800018310546875 9.2379999160766601562 9.3039999008178710938 9.3710002899169921875 9.437000274658203125 9.5039997100830078125 9.56999969482421875 9.7089996337890625 9.9219999313354492188 10.784999847412109375 12.039999961853027344 13.295000076293945312 14.550000190734863281 15.810000419616699219 17.246000289916992188 18.759000778198242188 21.406000137329101562 26.136999130249023438 28.239000320434570312 30.1399993896484375 31.799999237060546875 33.034000396728515625 34.2649993896484375 35.467998504638671875 36.9199981689453125 38.395000457763671875 39.869998931884765625 44.4199981689453125 49.06600189208984375 51.9420013427734375 54.827999114990234375 61.340999603271484375 64.53399658203125 69.14499664306640625 73.628997802734375 77.516998291015625 80.61299896240234375 82.746002197265625 85.12000274658203125 85.897003173828125 85.99700164794921875 86.07700347900390625 85.5059967041015625 83.79799652099609375 79.9329986572265625 79.25499725341796875 79.0110015869140625 78.94899749755859375 78.78600311279296875 78.78299713134765625 78.86499786376953125 78.128997802734375 77.3379974365234375 76.714996337890625 75.85700225830078125 74.3639984130859375 72.552001953125 70.7519989013671875 68.57599639892578125 66.035003662109375 64.14099884033203125 62.5709991455078125 60.99700164794921875 59.659000396728515625 58.720001220703125 57.644001007080078125 56.56800079345703125 55.492000579833984375 55.09400177001953125 53.495998382568359375 50.298999786376953125 45.66899871826171875 42.771999359130859375 40.186000823974609375 38.13700103759765625 36.1399993896484375 34.1790008544921875 31.281999588012695312 28.756000518798828125 26.927000045776367188 25.174999237060546875 23.13800048828125 22.065999984741210938 21.768999099731445312 22.618999481201171875 23.724000930786132812 25.650999069213867188 30.037000656127929688 30.5970001220703125 30.823999404907226562 30.63800048828125 30.115999221801757812 27.202999114990234375 26.1100006103515625 25.283000946044921875 23.511999130249023438 22.417999267578125 21.548000335693359375 21.049999237060546875 20.572000503540039062 20.156999588012695312 19.218000411987304688
68.2910003662109375 68.1490020751953125 67.9680023193359375 67.86199951171875 67.71700286865234375 67.47299957275390625 67.147003173828125 66.7689971923828125 66.3639984130859375 65.96099853515625 65.52700042724609375 65.08699798583984375 64.52300262451171875 63.9160003662109375 63.313999176025390625 62.7239990234375 62.090999603271484375 61.509998321533203125 60.94300079345703125 60.3769989013671875 59.5989990234375 58.383998870849609375 56.783000946044921875 55.13700103759765625 52.69300079345703125 50.258998870849609375 50 50.161998748779296875 50.80699920654296875 51.8600006103515625 52.9420013427734375 53.9550018310546875 54.615001678466796875 55 55 55 54.799999237060546875 54.299999237060546875 53.729999542236328125 52.713001251220703125 51.43399810791015625 49.983001708984375 48.65399932861328125 47.284000396728515625 45.87799835205078125 44.516998291015625 43.23600006103515625 41.953998565673828125 40.6660003662109375 39.437999725341796875 38.273998260498046875 37.10900115966796875 35.944000244140625 33.2350006103515625 26.184000015258789062 23.997999191284179688 22.725999832153320312 21.461000442504882812 20.047000885009765625 15.265999794006347656 14.307000160217285156 13.574000358581542969 12.803999900817871094 12.01399993896484375 11.22299957275390625 10.432999610900878906 9.90200042724609375 9.6820001602172851562 9.4460000991821289062 9.3900003433227539062 9.4560003280639648438 9.5229997634887695312 9.5889997482299804688 9.6560001373291015625 9.7220001220703125 9.7889995574951171875 9.854999542236328125 9.9219999313354492188 10.314000129699707031 11.567999839782714844 12.819000244140625 14.107000350952148438 15.574000358581542969 17.191999435424804688 18.809000015258789062 22.254999160766601562 26.149000167846679688 27.881999969482421875 29.615999221801757812 31.059000015258789062 32.36100006103515625 33.46900177001953125 34.542999267578125 35.805999755859375 37.285999298095703125 38.853000640869140625 41.561000823974609375 46.5970001220703125 50.618999481201171875 53.52500152587890625 59.201999664306640625 62.407001495361328125 65.10399627685546875 69.7969970703125 75.19100189208984375 78.40899658203125 81.09600067138671875 84.05699920654296875 85.17400360107421875 85.2740020751953125 85.37400054931640625 85.27500152587890625 81.2649993896484375 78.69899749755859375 77.8280029296875 77.615997314453125 77.68199920654296875 77.6490020751953125 78.05699920654296875 78.470001220703125 77.73400115966796875 76.9980010986328125 76.26200103759765625 75.3899993896484375 73.8280029296875 72.0800018310546875 70.33499908447265625 68.339996337890625 65.8509979248046875 64.0469970703125 62.6139984130859375 61.17800140380859375 59.6920013427734375 58.5279998779296875 57.452999114990234375 56.3769989013671875 55.41899871826171875 55.13800048828125 53.754001617431640625 51.340999603271484375 47.529998779296875 43.494998931884765625 40.65200042724609375 38.590999603271484375 36.8339996337890625 35.159000396728515625 30.969999313354492188 28.2649993896484375 26.173999786376953125 23.669000625610351562 21.162000656127929688 20.357000350952148438 20.503999710083007812 21.260999679565429688 22.364000320434570312 23.6660003662109375 25.8209991455078125 29.395000457763671875 30 28.36100006103515625 25.058000564575195312 23.55699920654296875 22.482000350952148438 22.106000900268554688 20.65399932861328125 19.614000320434570312 18.412000656127929688 18.371000289916992188 17.77899932861328125 17.172000885009765625 15.737999916076660156
67.51399993896484375 67.36499786376953125 67.18499755859375 67.0370025634765625 66.89600372314453125 66.6510009765625 66.3489990234375 65.99199676513671875 65.60900115966796875 65.220001220703125 64.8170013427734375 64.38500213623046875 63.923999786376953125 63.354999542236328125 62.754001617431640625 62.160999298095703125 61.577999114990234375 60.963001251220703125 60.395000457763671875 59.673999786376953125 58.595001220703125 57.354999542236328125 56.018001556396484375 54.15000152587890625 51.77899932861328125 50 50 50 50 50.673000335693359375 51.79399871826171875 52.74700164794921875 53.534000396728515625 54.23699951171875 54.65399932861328125 54.220001220703125 53.965000152587890625 53.465999603271484375 52.8899993896484375 52.3079986572265625 51.493000030517578125 50.1399993896484375 48.712001800537109375 47.27500152587890625 45.838001251220703125 44.479999542236328125 43.207000732421875 41.93399810791015625 40.659000396728515625 39.430999755859375 38.254001617431640625 37.087001800537109375 35.921001434326171875 33.244998931884765625 27.465999603271484375 24.593000411987304688 23.391000747680664062 22.017000198364257812 20.478000640869140625 16.745000839233398438 14.508999824523925781 13.729999542236328125 12.951999664306640625 12.154999732971191406 11.342000007629394531 10.529999732971191406 9.923999786376953125 9.6859998703002929688 9.54199981689453125 9.6079998016357421875 9.6750001907348632812 9.7410001754760742188 9.8079996109008789062 9.8739995956420898438 9.9409999847412109375 10 10 10 10 11.001000404357910156 12.317999839782714844 13.701999664306640625 15.100999832153320312 16.718000411987304688 18.520000457763671875 22.604999542236328125 26.180999755859375 27.738000869750976562 29.15399932861328125 30.475999832153320312 31.673999786376953125 32.731998443603515625 33.756000518798828125 34.786998748779296875 36.312999725341796875 38.01300048828125 39.796001434326171875 45.3040008544921875 49.042999267578125 52.048000335693359375 54.8600006103515625 60.215000152587890625 62.726001739501953125 65.8170013427734375 71.0469970703125 75.9550018310546875 78.83899688720703125 81.83899688720703125 85 85 85 83.81500244140625 78.858001708984375 77.44699859619140625 76.4010009765625 76.2220001220703125 76.55100250244140625 76.792999267578125 77.332000732421875 77.871002197265625 77.33899688720703125 76.602996826171875 75.86699676513671875 75.1309967041015625 73.93399810791015625 71.75800323486328125 69.90599822998046875 67.85199737548828125 65.667999267578125 63.94300079345703125 62.509998321533203125 61.13800048828125 59.801998138427734375 58.574001312255859375 57.342998504638671875 56.185001373291015625 55.4739990234375 55.2220001220703125 54.699001312255859375 52.216999053955078125 49.3300018310546875 44.439998626708984375 40.963001251220703125 38.657001495361328125 36.90399932861328125 35.15200042724609375 29.701999664306640625 27.535999298095703125 25.391000747680664062 20.836000442504882812 19.385000228881835938 18.813999176025390625 18.917999267578125 19.582000732421875 20.649000167846679688 21.827999114990234375 23.284000396728515625 24.395000457763671875 24.5540008544921875 23.80699920654296875 22.410999298095703125 21.312999725341796875 20.215999603271484375 19.238000869750976562 18.4160003662109375 17.607999801635742188 15.626999855041503906 15.177000045776367188 15.380999565124511719 13.420000076293945312 10.571999549865722656
66.73699951171875 66.5800018310546875 66.4069976806640625 66.21600341796875 66.0749969482421875 65.832000732421875 65.54399871826171875 65.21099853515625 64.8000030517578125 64.38300323486328125 64.04399871826171875 63.6529998779296875 63.259998321533203125 62.74900054931640625 62.187000274658203125 61.590999603271484375 61.006999969482421875 60.424999237060546875 59.728000640869140625 58.629001617431640625 57.549999237060546875 56.47100067138671875 55.16400146484375 53.328998565673828125 51.118999481201171875 50 50 50 50 50 50.70999908447265625 51.68000030517578125 52.44499969482421875 52.967998504638671875 53.258998870849609375 53.01399993896484375 53.131000518798828125 52.631000518798828125 52.050998687744140625 51.467998504638671875 50.884998321533203125 50.272998809814453125 48.851001739501953125 47.404998779296875 45.965999603271484375 44.574001312255859375 43.229999542236328125 41.87200164794921875 40.51399993896484375 39.31800079345703125 38.216999053955078125 37.0579986572265625 35.89099884033203125 33.035999298095703125 29.076000213623046875 25.45800018310546875 23.98699951171875 22.447999954223632812 20.909000396728515625 18.051000595092773438 14.689999580383300781 13.843000411987304688 13.017999649047851562 12.206999778747558594 11.395000457763671875 10.5839996337890625 9.9289999008178710938 9.6960000991821289062 9.7600002288818359375 9.826999664306640625 9.8929996490478515625 9.9589996337890625 10 10 10 10 10 10 10 10.489000320434570312 11.88899993896484375 13.288999557495117188 14.680999755859375 16.457000732421875 18.371999740600585938 21.809000015258789062 26.063999176025390625 27.3339996337890625 28.636999130249023438 29.870000839233398438 30.944000244140625 31.965000152587890625 32.97100067138671875 34.09400177001953125 35.44300079345703125 37.2239990234375 39.00299835205078125 42.86199951171875 47.229999542236328125 50.46099853515625 53.145999908447265625 56.25 60.319000244140625 62.94499969482421875 66.24900054931640625 71.8990020751953125 76.14099884033203125 78.50800323486328125 81.8249969482421875 85 83.12999725341796875 79.15000152587890625 77.3209991455078125 75.6620025634765625 74.81800079345703125 74.9680023193359375 75.56099700927734375 76.0670013427734375 76.6060028076171875 77.14499664306640625 76.94499969482421875 76.2089996337890625 75.47299957275390625 75.14499664306640625 74.31099700927734375 71.785003662109375 69.45800018310546875 67.5670013427734375 65.427001953125 63.842998504638671875 62.412998199462890625 61.006000518798828125 59.654998779296875 58.44499969482421875 57.05899810791015625 55.625 55.516998291015625 55.297000885009765625 55.0449981689453125 52.84999847412109375 49.9550018310546875 44.965000152587890625 40.80300140380859375 38.187000274658203125 36.243999481201171875 32.410999298095703125 28.465999603271484375 26.197999954223632812 22.3209991455078125 19.308000564575195312 18.30699920654296875 17.56999969482421875 17.26399993896484375 17.658000946044921875 18.700000762939453125 19.697000503540039062 20.858999252319335938 21.670000076293945312 21.649999618530273438 20.812999725341796875 19.686000823974609375 18.576999664306640625 17.468000411987304688 17.002000808715820312 16.336000442504882812 15.564999580383300781 13.248999595642089844 11.024999618530273438 9.0019998550415039062 8.06999969482421875 6.4780001640319824219
65.95600128173828125 65.7949981689453125 65.62799835205078125 65.4369964599609375 65.25299835205078125 65.01599884033203125 64.6399993896484375 64.24700164794921875 63.845001220703125 63.51300048828125 63.145000457763671875 62.8639984130859375 62.508998870849609375 62.103000640869140625 61.577999114990234375 61.020999908447265625 60.437000274658203125 59.78900146484375 58.94499969482421875 57.965999603271484375 56.801998138427734375 55.645000457763671875 54.1699981689453125 52.279998779296875 50.39099884033203125 50 49.981998443603515625 49.94300079345703125 49.90399932861328125 49.866001129150390625 49.908000946044921875 50.65200042724609375 51.174999237060546875 51.699001312255859375 51.86199951171875 51.84799957275390625 52.29199981689453125 51.792999267578125 51.21099853515625 50.62799835205078125 50.0449981689453125 50 48.912998199462890625 47.519001007080078125 46.159000396728515625 44.7949981689453125 43.3730010986328125 41.95999908447265625 40.31800079345703125 39.101001739501953125 38.005001068115234375 36.909999847412109375 35.814998626708984375 33.494998931884765625 28.188999176025390625 26.51300048828125 24.783000946044921875 23.191999435424804688 21.4720001220703125 19.302999496459960938 14.890000343322753906 14.043000221252441406 13.196999549865722656 12.350999832153320312 11.505000114440917969 10.626999855041503906 9.9340000152587890625 9.9119997024536132812 9.9779996871948242188 10 10 10 10 10 10 10 10 10 10 10 11.276000022888183594 12.670000076293945312 14.190999984741210938 15.946999549865722656 17.922000885009765625 19.923000335693359375 25.76300048828125 27.05500030517578125 28.167999267578125 29.225999832153320312 30.142999649047851562 31.134000778198242188 32.23600006103515625 33.243999481201171875 34.667999267578125 36.379001617431640625 38.117000579833984375 39.673000335693359375 45.464000701904296875 48.55899810791015625 51.26599884033203125 53.6100006103515625 56.542999267578125 59.924999237060546875 62.814998626708984375 65.84600067138671875 69.72899627685546875 75.01799774169921875 76.81600189208984375 77.95999908447265625 77.86100006103515625 76.71099853515625 75.27700042724609375 73.62200164794921875 72.91100311279296875 73.39499664306640625 74.64299774169921875 75.34100341796875 75.87999725341796875 76.41899871826171875 76.5500030517578125 75.81400299072265625 75.39099884033203125 75.18599700927734375 74.68499755859375 71.32399749755859375 68.9889984130859375 67.1529998779296875 65.3379974365234375 63.73600006103515625 62.2350006103515625 60.73400115966796875 58.87400054931640625 57.354000091552734375 55.9199981689453125 55.35900115966796875 55.36299896240234375 55.254001617431640625 55.063999176025390625 52.667999267578125 48.76599884033203125 43.396999359130859375 39.37400054931640625 36.9290008544921875 34.479999542236328125 29.3470001220703125 27.187999725341796875 24.745000839233398438 19.65200042724609375 18.365999221801757812 17.37599945068359375 16.4160003662109375 15.697999954223632812 15.5839996337890625 15.979000091552734375 16.677000045776367188 16.870000839233398438 17.465999603271484375 17.219999313354492188 16.06800079345703125 15.427000045776367188 15.244000434875488281 14.956999778747558594 14.40200042724609375 13.0279998779296875 11.569000244140625 10.715999603271484375 7.6960000991821289062 6.2940001487731933594 4.9749999046325683594 4.8099999427795410156
65.17099761962890625 65.01000213623046875 64.63700103759765625 64.177001953125 63.99700164794921875 63.5800018310546875 63.508998870849609375 63.08499908447265625 62.875 62.54000091552734375 62.227001190185546875 62.063999176025390625 61.745998382568359375 61.398998260498046875 60.938999176025390625 60.407001495361328125 59.819000244140625 58.981998443603515625 58.118999481201171875 57.27500152587890625 56.203998565673828125 55.03900146484375 53.51200103759765625 51.687000274658203125 49.88700103759765625 48.94699859619140625 48.908000946044921875 48.869998931884765625 48.83100128173828125 48.79199981689453125 49.450000762939453125 50 50 50.4329986572265625 50.465000152587890625 50.680999755859375 51.1360015869140625 50.952999114990234375 50.370998382568359375 50 50 49.842998504638671875 48.7949981689453125 47.6100006103515625 46.3899993896484375 45.18000030517578125 43.5 41.72299957275390625 39.966999053955078125 38.870998382568359375 37.787998199462890625 36.759998321533203125 35.733001708984375 31.576000213623046875 28.8209991455078125 27.19300079345703125 25.405000686645507812 23.6660003662109375 21.927000045776367188 20.149999618530273438 15.5279998779296875 14.243000030517578125 13.362000465393066406 12.470000267028808594 11.578000068664550781 10.692000389099121094 10 10 10 10 10 10 10 10 10 10 10 10 10 10 10.647000312805175781 12.185999870300292969 13.741000175476074219 15.368000030517578125 17.354000091552734375 19.409000396728515625 25.447000503540039062 26.656999588012695312 27.684999465942382812 28.534999847412109375 29.4290008544921875 30.11100006103515625 31.073999404907226562 32.483001708984375 33.963001251220703125 35.504001617431640625 37.087001800537109375 38.523998260498046875 40.018001556396484375 45.87200164794921875 48.907001495361328125 51.47299957275390625 53.80500030517578125 56.534999847412109375 59.11199951171875 61.40399932861328125 63.712001800537109375 66.61699676513671875 69.0780029296875 71.02500152587890625 72.0630035400390625 72.08899688720703125 71.3860015869140625 71.08100128173828125 71.04399871826171875 72.14299774169921875 73.753997802734375 75.06600189208984375 75.3489990234375 75.69300079345703125 76.15599822998046875 75.63800048828125 75.4329986572265625 75.2180023193359375 74.95999908447265625 70.76799774169921875 68.54799652099609375 66.772003173828125 65.00299835205078125 63.444000244140625 61.87599945068359375 60.312000274658203125 58.148998260498046875 56.1230010986328125 55.09799957275390625 55.187000274658203125 55.1829986572265625 55.134998321533203125 54.827999114990234375 51.50099945068359375 45.8079986572265625 39.8489990234375 37.52700042724609375 35.19100189208984375 29.937999725341796875 27.771999359130859375 25.70800018310546875 20.549999237060546875 18.815999984741210938 17.530000686645507812 16.392999649047851562 15.409000396728515625 14.718999862670898438 14.380999565124511719 14.352999687194824219 14.069000244140625 14.100000381469726562 13.930999755859375 13.671999931335449219 13.312000274658203125 12.932000160217285156 12.697999954223632812 11.496999740600585938 10.305999755859375 9.034000396728515625 7.7620000839233398438 7.0840001106262207031 5.0799999237060546875 4.8249998092651367188 4.6409997940063476562 4.4569997787475585938
63.3079986572265625 63.146999359130859375 62.76200103759765625 62.370998382568359375 62.410999298095703125 62.131000518798828125 62.13899993896484375 61.97299957275390625 61.77500152587890625 61.534000396728515625 61.3339996337890625 61.159000396728515625 60.935001373291015625 60.641998291015625 60.26300048828125 59.757999420166015625 59.042999267578125 58.35900115966796875 57.532001495361328125 56.520999908447265625 55.605998992919921875 54.269001007080078125 52.72299957275390625 51.185001373291015625 49.4850006103515625 47.98600006103515625 47.83499908447265625 47.796001434326171875 47.756999969482421875 48.16899871826171875 48.868999481201171875 49.20999908447265625 48.895999908447265625 48.797000885009765625 48.715999603271484375 49.233001708984375 49.967998504638671875 50.11299896240234375 50 50 49.910999298095703125 49.09400177001953125 48.172000885009765625 47.2949981689453125 46.417999267578125 45.45600128173828125 43.79000091552734375 41.673000335693359375 39.770000457763671875 38.77899932861328125 37.76200103759765625 36.73400115966796875 35.707000732421875 30.02899932861328125 28.49900054931640625 27.073999404907226562 25.645000457763671875 24.00099945068359375 22.18000030517578125 20.3600006103515625 16.562999725341796875 14.440999984741210938 13.560999870300292969 12.68000030517578125 11.793999671936035156 10.901000022888183594 10.019000053405761719 10 10 10 10 10 10 10 10 10 10 10 10 10 10 11.553000450134277344 13.133999824523925781 14.730999946594238281 16.711000442504882812 18.747999191284179688 25.121000289916992188 26.136999130249023438 27.134000778198242188 28.0149993896484375 28.70999908447265625 29.316999435424804688 29.91500091552734375 31.187000274658203125 32.529998779296875 34.31600189208984375 35.938999176025390625 37.36299896240234375 38.549999237060546875 41.25299835205078125 45.173999786376953125 48.9550018310546875 51.523998260498046875 53.72299957275390625 55.937999725341796875 57.838001251220703125 59.154998779296875 60.27899932861328125 62.5970001220703125 65.34799957275390625 66.5260009765625 66.88899993896484375 67.5540008544921875 68.2440032958984375 69.50299835205078125 71.18199920654296875 72.74199676513671875 74.39099884033203125 75.180999755859375 75.464996337890625 75.72699737548828125 75.6009979248046875 75.384002685546875 75.16100311279296875 73.7819976806640625 69.73600006103515625 67.9369964599609375 66.1490020751953125 64.5019989013671875 62.96900177001953125 61.421001434326171875 59.828998565673828125 57.7239990234375 55.18000030517578125 55 55.01200103759765625 55.0019989013671875 55 53.13700103759765625 50.160999298095703125 41.560001373291015625 37.6529998779296875 35.31800079345703125 30.822999954223632812 28.239000320434570312 26.0839996337890625 22.27700042724609375 19.1790008544921875 17.900999069213867188 16.6790008544921875 15.442000389099121094 14.644000053405761719 14.043000221252441406 13.588999748229980469 13.413999557495117188 13.168999671936035156 12.668999671936035156 12.477000236511230469 11.963999748229980469 11.338000297546386719 10.633999824523925781 9.6619997024536132812 8.6899995803833007812 7.6729998588562011719 6.5260000228881835938 5.2420001029968261719 4.8940000534057617188 4.70800018310546875 4.4910001754760742188 4.3070001602172851562 4.1230001449584960938
60.965000152587890625 61.02500152587890625 60.884998321533203125 60.7779998779296875 60.81800079345703125 60.73799896240234375 60.768001556396484375 60.798000335693359375 60.6829986572265625 60.5279998779296875 60.41899871826171875 60.255001068115234375 60.077999114990234375 59.84799957275390625 59.534999847412109375 59.09400177001953125 58.506999969482421875 57.699001312255859375 56.893001556396484375 56.0839996337890625 55.0670013427734375 53.73400115966796875 52.175998687744140625 50.618000030517578125 49.022998809814453125 47.5839996337890625 46.7610015869140625 46.72299957275390625 46.88700103759765625 47.48600006103515625 47.9589996337890625 47.991001129150390625 47.523998260498046875 47.050998687744140625 46.786998748779296875 47.381999969482421875 48.145000457763671875 48.81800079345703125 49.340000152587890625 49.351001739501953125 48.72100067138671875 48.104999542236328125 47.37799835205078125 46.50099945068359375 45.62400054931640625 45 43.950000762939453125 41.54000091552734375 39.59799957275390625 38.618999481201171875 37.631000518798828125 36.64099884033203125 35.6510009765625 30.525999069213867188 28.690000534057617188 27.302999496459960938 25.813999176025390625 24.163000106811523438 22.31800079345703125 20.474000930786132812 17.422000885009765625 14.685000419616699219 13.800000190734863281 12.913000106811523438 12.024000167846679688 11.137000083923339844 10.282999992370605469 10 10 10 10 10 10 10 10 10 10 10 10 10 10 10.767999649047851562 12.355999946594238281 14.065999984741210938 15.921999931335449219 18.08300018310546875 21.55500030517578125 25.7220001220703125 26.635999679565429688 27.350000381469726562 27.974000930786132812 28.47299957275390625 29.038999557495117188 29.766000747680664062 30.912000656127929688 32.685001373291015625 34.4980010986328125 35.770000457763671875 36.6920013427734375 38.66699981689453125 41.116001129150390625 45.61100006103515625 48.6699981689453125 51.159000396728515625 53.167999267578125 54.935001373291015625 56.243000030517578125 57.23699951171875 58.05500030517578125 59.0410003662109375 60.6660003662109375 62.641998291015625 64.21900177001953125 65.93499755859375 68.03800201416015625 70.0930023193359375 71.5930023193359375 73.177001953125 74.9720001220703125 75.272003173828125 75.45099639892578125 75.41400146484375 75.23699951171875 75.03299713134765625 71.91400146484375 69.02500152587890625 67.25099945068359375 65.4759979248046875 63.93000030517578125 62.470001220703125 60.966999053955078125 59.217998504638671875 57.133998870849609375 55.076000213623046875 55 54.840000152587890625 54.11299896240234375 53.1920013427734375 51.4029998779296875 46.48699951171875 39.216999053955078125 35.634998321533203125 31.287000656127929688 28.555999755859375 26.507999420166015625 23.406000137329101562 19.516000747680664062 18.256999969482421875 16.9720001220703125 15.701999664306640625 14.701999664306640625 14.060999870300292969 13.432999610900878906 12.836000442504882812 12.475000381469726562 12.30500030517578125 11.524999618530273438 11.154000282287597656 10.286999702453613281 9.1540002822875976562 8.0290002822875976562 7.125 6.1690001487731933594 5.1360001564025878906 4.9019999504089355469 4.7760000228881835938 4.6449999809265136719 4.4380002021789550781 4.1760001182556152344 3.9730000495910644531 3.7880001068115234375
59.269001007080078125 59.300998687744140625 59.3470001220703125 59.383998870849609375 59.41400146484375 59.504001617431640625 59.52700042724609375 59.550998687744140625 59.5449981689453125 59.505001068115234375 59.395000457763671875 59.3209991455078125 59.141998291015625 58.976001739501953125 58.741001129150390625 58.395999908447265625 57.86299896240234375 57.256999969482421875 56.439998626708984375 55.564998626708984375 54.5110015869140625 53.145000457763671875 51.785999298095703125 50.228000640869140625 48.617000579833984375 46.99700164794921875 45.68399810791015625 45.67800140380859375 46.116001129150390625 46.6829986572265625 46.80699920654296875 46.771999359130859375 46.157001495361328125 45.31999969482421875 45 45.548000335693359375 46.358001708984375 47.172000885009765625 47.766998291015625 47.93199920654296875 47.51399993896484375 46.98699951171875 46.56800079345703125 45.707000732421875 45 45 43.70600128173828125 40.79199981689453125 39.338001251220703125 38.43199920654296875 37.490001678466796875 36.550998687744140625 35.5709991455078125 31.896999359130859375 28.913999557495117188 27.406000137329101562 25.905000686645507812 24.26300048828125 22.413000106811523438 20.562999725341796875 17.839000701904296875 14.897000312805175781 14.003000259399414062 13.119999885559082031 12.265999794006347656 11.411999702453613281 10.557999610900878906 10 10 10 10 10 10 10 10 10 10 10 10 10 10 10 11.663999557495117188 13.345999717712402344 15.144000053405761719 17.256999969482421875 19.391000747680664062 25.267999649047851562 25.99900054931640625 26.631999969482421875 27.26399993896484375 27.462999343872070312 28.163000106811523438 28.8899993896484375 29.587999343872070312 30.65200042724609375 32.1829986572265625 33.591999053955078125 34.784000396728515625 36.243000030517578125 38.022998809814453125 40.394001007080078125 45.11199951171875 47.970001220703125 50.464000701904296875 52.15399932861328125 53.562000274658203125 54.451000213623046875 55.117000579833984375 56.120998382568359375 57.606998443603515625 59.66899871826171875 62.17800140380859375 64.9739990234375 67.2689971923828125 68.67800140380859375 70.11699676513671875 71.8690032958984375 73.621002197265625 75.0370025634765625 75.17299652099609375 75.18000030517578125 75.04599761962890625 73.07199859619140625 70.05899810791015625 68.30999755859375 66.5500030517578125 64.83599853515625 63.4720001220703125 62.023998260498046875 60.523998260498046875 58.7050018310546875 56.744998931884765625 54.9550018310546875 54.228000640869140625 53.5 52.772998809814453125 51.6829986572265625 49.66500091552734375 42.01200103759765625 35.588001251220703125 31.6529998779296875 28.52899932861328125 26.455999374389648438 24.246000289916992188 19.68000030517578125 18.572000503540039062 17.41699981689453125 16.093000411987304688 14.868000030517578125 14.159000396728515625 13.463999748229980469 12.8339996337890625 12.22299957275390625 11.66699981689453125 11.439999580383300781 10.65200042724609375 9.6829996109008789062 7.8909997940063476562 6.5279998779296875 5.4029998779296875 4.9479999542236328125 4.86100006103515625 4.7610001564025878906 4.6529998779296875 4.5269999504089355469 4.3969998359680175781 4.1680002212524414062 3.9059998989105224609 3.6440000534057617188 3.4539999961853027344
58.0260009765625 58.0579986572265625 58.144001007080078125 58.1790008544921875 58.255001068115234375 58.42800140380859375 58.452999114990234375 58.476001739501953125 58.467998504638671875 58.465999603271484375 58.35900115966796875 58.368999481201171875 58.202999114990234375 58.087001800537109375 57.950000762939453125 57.673000335693359375 57.216999053955078125 56.632999420166015625 56.006000518798828125 55.174999237060546875 53.963001251220703125 52.616001129150390625 51.26399993896484375 49.825000762939453125 48.159000396728515625 46.5019989013671875 45 45 45.298999786376953125 45.64099884033203125 45.65599822998046875 45.55300140380859375 45 45 44.983001708984375 44.965000152587890625 44.94699859619140625 45.578998565673828125 46.24900054931640625 46.435001373291015625 46.160999298095703125 45.726001739501953125 45.352001190185546875 45 45 44.798999786376953125 42.57199859619140625 39.953998565673828125 39.0449981689453125 38.1360015869140625 37.227001190185546875 36.326000213623046875 35.410999298095703125 32.062000274658203125 29.05500030517578125 27.5 25.94499969482421875 24.29199981689453125 22.4850006103515625 20.643999099731445312 17.975000381469726562 15.237000465393066406 14.203000068664550781 13.331000328063964844 12.468999862670898438 11.663000106811523438 10.862000465393066406 10.031999588012695312 10 10 10 10 10 10 10 10 10 9.9969997406005859375 9.9429998397827148438 9.8879995346069335938 9.8339996337890625 9.8809995651245117188 10.819000244140625 12.501000404357910156 14.395999908447265625 16.447999954223632812 18.561000823974609375 22.204999923706054688 25.288999557495117188 25.920999526977539062 26.337999343872070312 26.559000015258789062 27.285999298095703125 27.952999114990234375 28.562999725341796875 29.229999542236328125 29.856000900268554688 31.183000564575195312 32.55699920654296875 33.840999603271484375 35.25 37.28099822998046875 40.141998291015625 44.37200164794921875 47.162998199462890625 49.575000762939453125 51.104000091552734375 52.0410003662109375 52.657001495361328125 53.56800079345703125 55.68199920654296875 58.421001434326171875 61.547000885009765625 65.009002685546875 66.76599884033203125 68.18900299072265625 69.14499664306640625 70.18599700927734375 71.9380035400390625 73.32399749755859375 74.21099853515625 74.37799835205078125 73.41400146484375 71.358001708984375 69.2239990234375 67.58499908447265625 65.8690032958984375 64.30899810791015625 62.944000244140625 61.578998565673828125 60.16699981689453125 58.229999542236328125 56.22299957275390625 53.381999969482421875 52.490001678466796875 52.075000762939453125 51.43399810791015625 50.407001495361328125 46.1529998779296875 37.645999908447265625 31.863000869750976562 28.663000106811523438 26.316999435424804688 23.752000808715820312 20.044000625610351562 18.871999740600585938 17.718000411987304688 16.600000381469726562 15.317000389099121094 14.397999763488769531 13.626999855041503906 12.907999992370605469 12.225999832153320312 11.604999542236328125 11.012999534606933594 10.574999809265136719 9.3249998092651367188 7.1500000953674316406 5.3080000877380371094 4.9019999504089355469 4.79199981689453125 4.6890001296997070312 4.6009998321533203125 4.5089998245239257812 4.4029998779296875 4.2789998054504394531 4.1479997634887695312 3.8989999294281005859 3.6359999179840087891 3.3740000724792480469 3.1199998855590820312
56.786998748779296875 56.814998626708984375 56.9420013427734375 56.9739990234375 57.200000762939453125 57.352001190185546875 57.379001617431640625 57.40200042724609375 57.404998779296875 57.426998138427734375 57.341999053955078125 57.368000030517578125 57.2649993896484375 57.203998565673828125 57.089000701904296875 56.908000946044921875 56.5260009765625 56.04000091552734375 55.40200042724609375 54.569000244140625 53.394001007080078125 52.104000091552734375 50.768001556396484375 49.38800048828125 47.7779998779296875 46.16899871826171875 45 45 45 44.926998138427734375 44.837001800537109375 44.6660003662109375 44.43199920654296875 44.27500152587890625 44.256999969482421875 44.2389984130859375 44.22100067138671875 44.532001495361328125 44.837001800537109375 44.951999664306640625 44.798999786376953125 44.494998931884765625 44.187999725341796875 43.894001007080078125 43.685001373291015625 43.069000244140625 41.370998382568359375 39.4739990234375 38.582000732421875 37.779998779296875 36.908000946044921875 36.016998291015625 35.117000579833984375 31.339000701904296875 28.98699951171875 27.441999435424804688 25.896999359130859375 24.246000289916992188 22.450000762939453125 20.674999237060546875 18.423000335693359375 15.711000442504882812 14.376999855041503906 13.532999992370605469 12.689000129699707031 11.845000267028808594 11.001999855041503906 10.157999992370605469 10 10 10 10 10 9.993000030517578125 9.937999725341796875 9.8830003738403320312 9.8290004730224609375 9.7740001678466796875 9.7189998626708984375 9.6649999618530273438 9.6099996566772460938 9.76399993896484375 9.9960002899169921875 11.744000434875488281 13.661999702453613281 15.63899993896484375 17.55699920654296875 19.261999130249023438 25 25.211000442504882812 25.29199981689453125 25.68199920654296875 26.322000503540039062 26.900999069213867188 27.47100067138671875 27.924999237060546875 28.531999588012695312 29.201999664306640625 30.326000213623046875 31.781000137329101562 33.200000762939453125 34.51599884033203125 36.90399932861328125 40.37799835205078125 43.8209991455078125 46.1269989013671875 48.143001556396484375 49.49900054931640625 50.255001068115234375 51.3079986572265625 54.36299896240234375 57.83100128173828125 61.282001495361328125 64.9290008544921875 66.31400299072265625 67.26999664306640625 68.22699737548828125 69.2239990234375 70.17299652099609375 71.345001220703125 72.03299713134765625 72.11699676513671875 71.54399871826171875 69.9250030517578125 68.4160003662109375 66.80300140380859375 65.15899658203125 63.743000030517578125 62.395000457763671875 61.03900146484375 59.5110015869140625 57.47299957275390625 55.479000091552734375 51.94699859619140625 50.3769989013671875 50 50 47.56999969482421875 40.7239990234375 35.243999481201171875 29.502000808715820312 26.642999649047851562 24.13800048828125 21.37599945068359375 19.349000930786132812 18.224000930786132812 17.100000381469726562 15.881999969482421875 14.741000175476074219 13.887999534606933594 13.177000045776367188 12.390999794006347656 11.642000198364257812 10.989999771118164062 10.376999855041503906 9.0679998397827148438 6.5799999237060546875 4.951000213623046875 4.8080000877380371094 4.673999786376953125 4.5500001907348632812 4.4400000572204589844 4.340000152587890625 4.2529997825622558594 4.1510000228881835938 4.0310001373291015625 3.8910000324249267578 3.6289999485015869141 3.3659999370574951172 3.104000091552734375 2.8420000076293945312
55.595001220703125 55.578998565673828125 55.7389984130859375 55.895999908447265625 56.141998291015625 56.2760009765625 56.30300140380859375 56.326000213623046875 56.341999053955078125 56.368999481201171875 56.328998565673828125 56.354999542236328125 56.326000213623046875 56.2910003662109375 56.203998565673828125 56.09600067138671875 55.80899810791015625 55.34799957275390625 54.61299896240234375 53.3170013427734375 52.36299896240234375 51.2910003662109375 50.144001007080078125 48.83300018310546875 47.4199981689453125 45.96099853515625 45 44.990001678466796875 44.672000885009765625 44.354000091552734375 44.229999542236328125 44.05699920654296875 43.880001068115234375 43.5989990234375 43.53099822998046875 43.51300048828125 43.494998931884765625 43.720001220703125 43.891998291015625 43.91699981689453125 43.715000152587890625 43.341999053955078125 43.033000946044921875 42.712001800537109375 42.117000579833984375 41.576999664306640625 40.108001708984375 38.992000579833984375 37.91500091552734375 37.15000152587890625 36.46099853515625 35.590999603271484375 34.129001617431640625 30.475000381469726562 28.783000946044921875 27.37400054931640625 25.851999282836914062 24.194000244140625 22.474000930786132812 20.858999252319335938 18.732000350952148438 16.086000442504882812 14.494999885559082031 13.637000083923339844 12.779999732971191406 11.921999931335449219 11.034999847412109375 10.135999679565429688 10 9.9879999160766601562 9.9329996109008789062 9.8780002593994140625 9.8240003585815429688 9.7690000534057617188 9.7139997482299804688 9.659999847412109375 9.604999542236328125 9.5509996414184570312 9.4960002899169921875 9.4409999847412109375 9.4139995574951171875 9.6470003128051757812 9.8800001144409179688 10.968000411987304688 12.894000053405761719 14.828000068664550781 16.510000228881835938 18.167999267578125 19.825000762939453125 22.469999313354492188 23.19300079345703125 24.628999710083007812 25.232999801635742188 25.771999359130859375 26.302999496459960938 26.531999588012695312 27.190000534057617188 27.627000808715820312 28.465999603271484375 29.864000320434570312 31.26300048828125 32.6510009765625 34.03900146484375 36.858001708984375 40.578998565673828125 43.187999725341796875 44.631000518798828125 46.105998992919921875 47.367000579833984375 48.869998931884765625 52.61100006103515625 57.42800140380859375 60.84799957275390625 64.733001708984375 65.983001708984375 67.01200103759765625 67.964996337890625 68.7259979248046875 69.24199676513671875 69.68000030517578125 69.9219970703125 69.92400360107421875 69.660003662109375 68.82700347900390625 67.49500274658203125 65.96700286865234375 64.37000274658203125 62.8209991455078125 61.537998199462890625 60.271999359130859375 58.4720001220703125 56.477001190185546875 54.13899993896484375 50.147998809814453125 50 50 49.785999298095703125 44.3470001220703125 38.884998321533203125 33.615001678466796875 28.482999801635742188 25.107999801635742188 22.563999176025390625 20.087999343872070312 18.836999893188476562 17.649999618530273438 16.506000518798828125 15.324999809265136719 14.310999870300292969 13.368000030517578125 12.536999702453613281 11.826999664306640625 11.116000175476074219 10.385000228881835938 8.8800001144409179688 6.2859997749328613281 4.923999786376953125 4.7680001258850097656 4.6139998435974121094 4.4640002250671386719 4.3249998092651367188 4.1989998817443847656 4.0879998207092285156 3.9939999580383300781 3.8989999294281005859 3.7829999923706054688 3.6210000514984130859 3.3589999675750732422 3.0959999561309814453 2.8340001106262207031 2.5720000267028808594
